-43.405289 18.143999 0.960000 0.135291 0.078110 0.987722 
-41.409969 16.992001 0.960000 -0.028938 0.150368 0.988206 
-36.020679 15.552000 0.960000 -0.159056 -0.137746 0.977613 
-36.020679 14.400000 0.960000 -0.677326 0.000000 0.735683 
-38.015999 16.704000 0.960000 0.041636 -0.216348 0.975428 
-40.011318 15.552000 0.960000 0.259621 -0.149892 0.954007 
-40.011318 13.248000 0.960000 0.557849 0.322074 0.764901 
-38.015999 12.096000 0.960000 -0.033196 0.172491 0.984452 
-36.020679 13.248000 0.960000 -0.191843 0.166141 0.967261 
-32.461288 10.656000 0.960000 -0.244170 -0.140972 0.959431 
-32.461288 8.352002 0.960000 -0.263365 0.152054 0.952638 
-34.456612 11.808000 0.960000 0.040416 -0.210006 0.976864 
-36.451931 10.656000 0.960000 0.245608 -0.141801 0.958942 
-36.451931 8.352002 0.960000 0.503638 0.290775 0.813510 
-34.456612 7.200001 0.960000 -0.034182 0.177614 0.983506 
-32.461288 20.448000 0.960000 -0.122040 -0.070460 0.990021 
-32.461288 18.143999 0.960000 -0.263365 0.152054 0.952638 
-34.456612 21.600000 0.960000 0.027164 -0.141148 0.989616 
-36.451931 20.448000 0.960000 0.255977 -0.147788 0.955319 
-36.451931 18.143999 0.960000 0.523061 0.301989 0.797000 
-34.456612 16.992001 0.960000 -0.034182 0.177614 0.983506 
-29.108681 15.552000 0.960000 -0.223555 -0.193604 0.955270 
-29.108681 14.400000 0.960000 -0.687099 0.000000 0.726564 
-31.104000 16.704000 0.960000 0.019812 -0.102946 0.994490 
-33.099319 15.552000 0.960000 0.263365 -0.152054 0.952638 
-33.099319 13.248000 0.960000 0.572621 0.330602 0.750205 
-31.104000 12.096000 0.960000 -0.033863 0.175958 0.983815 
-29.108681 13.248000 0.960000 -0.194171 0.168157 0.966448 
-25.590639 10.656000 0.960000 -0.238941 -0.137953 0.961185 
-25.590639 8.352002 0.960000 -0.259621 0.149893 0.954007 
-27.585970 11.808000 0.960000 0.040938 -0.212718 0.976256 
-29.581289 10.656000 0.960000 0.248974 -0.143745 0.957784 
-29.581289 8.352002 0.960000 0.516467 0.298182 0.802713 
-27.585970 7.200001 0.960000 -0.040740 0.211693 0.976487 
-25.590639 20.220980 0.960000 -0.808280 0.000000 0.588798 
-25.590639 18.143999 0.960000 -0.249573 0.154222 0.955996 
-25.590639 20.448000 0.960000 -0.147807 -0.233048 0.961167 
-27.585970 21.600000 0.960000 0.042163 -0.219086 0.974794 
-26.944811 21.229830 0.960000 0.000000 0.000000 1.000000 
-29.581289 20.448000 0.960000 0.129259 -0.074628 0.988799 
-29.581289 18.143999 0.960000 0.143578 0.082895 0.986161 
-27.585970 16.992001 0.960000 -0.034034 0.176846 0.983650 
-22.196680 15.552000 0.960000 -0.139266 -0.120608 0.982883 
-22.196680 14.400000 0.960000 -0.677325 0.000000 0.735684 
-24.191999 16.704000 0.960000 0.041637 -0.216349 0.975428 
-26.187321 15.552000 0.960000 0.259621 -0.149892 0.954007 
-26.187321 13.248000 0.960000 0.557851 0.322075 0.764898 
-24.191999 12.096000 0.960000 -0.033196 0.172491 0.984451 
-22.196680 13.248000 0.960000 -0.191843 0.166141 0.967261 
-18.637289 10.656000 0.960000 -0.197753 -0.114173 0.973580 
-18.637289 8.352002 0.960000 -0.171884 0.099237 0.980106 
-20.632610 11.808000 0.960000 0.021124 -0.109764 0.993733 
-22.627939 10.656000 0.960000 0.245608 -0.141802 0.958942 
-22.627939 8.352002 0.960000 0.503639 0.290777 0.813509 
-20.632610 7.200001 0.960000 -0.042114 0.218833 0.974853 
-20.632610 21.600000 0.960000 0.031011 -0.161138 0.986445 
-22.627939 20.448000 0.960000 0.000000 0.000000 1.000000 
-22.593451 20.467911 0.960000 0.320779 0.454625 -0.830914 
-18.889851 17.998180 0.960000 0.055280 0.108687 0.992538 
-21.746950 19.870630 0.960000 0.512341 0.726118 0.458541 
-18.637289 18.143999 0.960000 -0.776792 0.080083 0.624644 
-18.637289 20.448000 0.960000 -0.199291 -0.115061 0.973162 
-17.280001 16.704000 0.960000 -0.022099 -0.226620 0.973732 
-17.989340 16.294460 0.960000 0.122820 0.040860 0.991588 
-15.994020 12.838460 0.960000 0.186943 0.165969 0.968249 
-15.284680 13.248000 0.960000 -0.216563 0.098375 0.971299 
-15.284680 14.400000 0.960000 -0.941148 0.000000 0.337996 
-15.284680 15.552000 0.960000 -0.226595 -0.196237 0.954016 
-13.761970 7.200001 0.960000 0.027945 0.138260 0.990002 
-13.281700 7.477284 0.960000 -0.032197 -0.046920 0.998380 
-15.757290 8.872655 0.960000 -0.175723 -0.312792 -0.933425 
-13.754160 7.723283 0.960000 0.000000 0.000000 1.000000 
-15.757290 8.352002 0.960000 0.502678 0.599648 0.622686 
-14.098390 7.394234 0.960000 0.000000 0.000000 1.000000 
-15.757290 18.143999 0.960000 0.576745 0.199790 0.792117 
-14.759630 17.568001 0.960000 -0.423753 0.146792 0.893804 
-14.759630 21.024000 0.960000 -0.517155 -0.001384 -0.855891 
-15.757290 20.448000 0.960000 0.262548 -0.090949 0.960623 
-10.368000 12.096000 0.960000 -0.006058 0.043498 0.999035 
-8.735955 13.038260 0.960000 -0.066443 -0.079492 0.994619 
-9.259819 12.735810 0.960000 0.000000 0.000000 1.000000 
-12.363320 14.916960 0.960000 -0.003109 -0.053773 0.998548 
-8.885555 13.115740 0.960000 0.000000 0.000000 1.000000 
-12.363320 13.248000 0.960000 0.413253 0.292302 0.862428 
-8.886645 18.143999 0.960000 0.452297 0.226129 0.862724 
-7.558395 17.377131 0.960000 -0.007659 0.017081 0.999825 
-6.786846 19.085569 0.960000 -0.025953 -0.012976 0.999579 
-8.886645 20.033859 0.960000 0.076824 -0.171326 0.982214 
-7.220177 19.281269 0.960000 -0.017428 -0.108236 -0.993972 
-7.282028 19.291229 0.960000 0.000000 0.000000 1.000000 
-8.646164 19.925261 0.960000 0.000000 0.000000 1.000000 
-44.188679 22.243210 0.960000 0.174732 0.103623 0.979148 
-44.844330 26.472679 0.960000 0.118696 0.017172 0.992782 
-42.808609 23.040001 0.960000 -0.263684 0.117358 0.957443 
-42.808609 25.344000 0.960000 -0.242842 -0.140206 0.959880 
-44.803940 26.496000 0.960000 -0.098327 -0.184679 0.977868 
-39.456001 30.240000 0.960000 -0.158063 -0.136886 0.977895 
-39.456001 29.087999 0.960000 -0.677325 0.000000 0.735684 
-41.451321 31.392000 0.960000 0.043164 -0.224287 0.973567 
-43.446640 30.240000 0.960000 0.263364 -0.152053 0.952638 
-43.446640 27.936001 0.960000 0.572619 0.330601 0.750207 
-41.451321 26.784000 0.960000 -0.048737 0.253245 0.966174 
-39.456001 27.936001 0.960000 -0.113882 0.098625 0.988587 
-35.896610 25.344000 0.960000 -0.241529 -0.139447 0.960322 
-35.896610 23.040001 0.960000 -0.255977 0.147788 0.955319 
-37.891930 26.496000 0.960000 0.040416 -0.210006 0.976864 
-39.887260 25.344000 0.960000 0.296447 -0.171154 0.939588 
-39.887260 23.040001 0.960000 0.445742 0.257351 0.857370 
-37.891930 21.888000 0.960000 -0.033196 0.172491 0.984451 
-32.543999 30.240000 0.960000 -0.134870 -0.116801 0.983955 
-32.543999 29.087999 0.960000 -0.998355 0.000000 0.057343 
-34.539322 31.392000 0.960000 0.043164 -0.224288 0.973566 
-36.534649 30.240000 0.960000 0.263366 -0.152055 0.952637 
-36.534649 27.936001 0.960000 0.572623 0.330605 0.750202 
-34.539322 26.784000 0.960000 -0.048516 0.252095 0.966486 
-32.543999 27.936001 0.960000 -0.086575 0.074977 0.993420 
-25.632000 30.240000 0.960000 -0.158063 -0.136887 0.977895 
-25.632000 29.087999 0.960000 -0.677328 0.000000 0.735682 
-27.627319 31.392000 0.960000 0.042586 -0.221282 0.974280 
-29.622641 30.240000 0.960000 0.259621 -0.149892 0.954007 
-29.622641 27.936001 0.960000 0.203149 0.117288 0.972098 
-27.627319 26.784000 0.960000 -0.030590 0.158951 0.986812 
-25.632000 27.936001 0.960000 -0.098933 0.085678 0.991399 
-22.072611 25.344000 0.960000 -0.241528 -0.139447 0.960322 
-22.072611 23.040001 0.960000 -0.255976 0.147789 0.955319 
-24.067940 26.496000 0.960000 0.040416 -0.210006 0.976864 
-26.063259 25.344000 0.960000 0.406057 -0.234437 0.883265 
-26.063259 23.040001 0.960000 0.533447 0.307985 0.787769 
-24.067940 21.888000 0.960000 -0.032249 0.167569 0.985333 
-18.719999 30.240000 0.960000 -0.161283 -0.139675 0.976974 
-18.719999 29.087999 0.960000 -0.687099 0.000000 0.726564 
-20.715321 31.392000 0.960000 0.043164 -0.224288 0.973566 
-22.710649 30.240000 0.960000 0.263365 -0.152054 0.952638 
-22.710649 27.936001 0.960000 0.572621 0.330604 0.750204 
-20.715321 26.784000 0.960000 -0.048516 0.252094 0.966486 
-18.719999 27.936001 0.960000 -0.116350 0.100762 0.988084 
-15.201970 25.344000 0.960000 -0.264204 -0.152538 0.952328 
-15.201970 23.040001 0.960000 -0.381105 0.220031 0.897967 
-17.197290 26.496000 0.960000 0.040938 -0.212719 0.976256 
-19.192610 25.344000 0.960000 0.312317 -0.180316 0.932708 
-19.192610 23.040001 0.960000 0.455706 0.263102 0.850359 
-17.197290 21.888000 0.960000 -0.030872 0.160415 0.986567 
-15.798650 27.936001 0.960000 0.557851 0.322077 0.764898 
-13.803320 26.784000 0.960000 -0.043875 0.057659 0.997372 
-12.355460 30.556070 0.960000 -0.100994 0.000000 0.994887 
-13.803320 31.392000 0.960000 0.060997 -0.225966 0.972223 
-15.798650 30.240000 0.960000 0.259621 -0.149893 0.954007 
-10.326640 26.496000 0.960000 0.001798 -0.097983 0.995187 
-10.858230 26.189091 0.960000 0.360840 -0.115572 0.925439 
-11.572190 22.607121 0.960000 0.071865 0.008882 0.997375 
-10.326640 21.888000 0.960000 -0.000741 0.092797 0.995685 
-10.331980 22.617020 0.960000 -1.000000 0.000000 0.000000 
-10.326640 23.882460 0.960000 -0.385866 0.004036 0.922546 
-10.317760 23.976580 0.960000 -0.933391 0.236768 -0.269672 
-10.326640 24.191999 0.960000 -0.966052 0.258346 0.000000 
-10.202770 24.406570 0.960000 -0.056218 0.015035 0.998305 
-9.328984 25.920000 0.960000 0.000000 0.000000 1.000000 
-9.398111 25.959909 0.960000 -0.036129 0.027841 0.998959 
-8.886645 27.936001 0.960000 0.559641 0.149219 0.815191 
-8.160547 27.516790 0.960000 -0.057801 0.153995 0.986380 
-4.896000 29.087999 0.960000 -0.021077 0.025267 0.999458 
-4.896000 30.240000 0.960000 -0.040643 -0.035198 0.998554 
-6.891323 31.392000 0.960000 0.030630 -0.159158 0.986778 
-8.886645 30.240000 0.960000 0.215099 -0.124188 0.968664 
-35.896610 35.136002 0.960000 -0.323350 -0.186686 0.927682 
-35.896610 32.832001 0.960000 -0.263365 0.152054 0.952638 
-37.891930 36.287998 0.960000 0.040344 -0.209634 0.976947 
-39.887260 35.136002 0.960000 0.245608 -0.141802 0.958942 
-39.887260 32.832001 0.960000 0.503639 0.290777 0.813508 
-37.891930 31.680000 0.960000 -0.034182 0.177615 0.983506 
-29.025970 35.136002 0.960000 -0.317528 -0.183325 0.930359 
-29.025970 32.832001 0.960000 -0.259621 0.149892 0.954007 
-31.021290 36.287998 0.960000 0.040344 -0.209633 0.976947 
-33.016609 35.136002 0.960000 0.248974 -0.143745 0.957784 
-33.016609 32.832001 0.960000 0.516468 0.298182 0.802713 
-31.021290 31.680000 0.960000 -0.013099 0.068063 0.997595 
-45.734879 32.217480 0.960000 0.226689 0.085970 0.970166 
-46.237579 35.460289 0.960000 0.057957 -0.013255 0.998231 
-44.803940 31.680000 0.960000 -0.068845 0.191806 0.979015 
-42.808609 32.832001 0.960000 -0.263365 0.152054 0.952638 
-42.808609 35.136002 0.960000 -0.323350 -0.186687 0.927682 
-44.803940 36.287998 0.960000 0.012815 -0.123777 0.992227 
-17.197290 36.287998 0.960000 0.040344 -0.209634 0.976947 
-19.192610 35.136002 0.960000 0.248974 -0.143745 0.957784 
-19.192610 32.832001 0.960000 0.516468 0.298182 0.802713 
-17.197290 31.680000 0.960000 -0.034034 0.176846 0.983650 
-15.201970 32.832001 0.960000 -0.259621 0.149892 0.954007 
-15.201970 35.136002 0.960000 -0.317528 -0.183325 0.930359 
-24.067940 31.680000 0.960000 -0.034182 0.177615 0.983506 
-22.072611 32.832001 0.960000 -0.263365 0.152054 0.952638 
-22.072611 35.136002 0.960000 -0.323349 -0.186687 0.927682 
-24.067940 36.287998 0.960000 0.040344 -0.209634 0.976947 
-26.063259 35.136002 0.960000 0.245608 -0.141802 0.958942 
-26.063259 32.832001 0.960000 0.503640 0.290776 0.813508 
-43.446640 37.728001 0.960000 0.327033 0.188812 0.925959 
-41.451321 36.576000 0.960000 -0.033455 0.173837 0.984206 
-39.456001 37.728001 0.960000 -0.191843 0.166141 0.967261 
-39.456001 38.880001 0.960000 -0.677325 0.000000 0.735684 
-39.456001 40.032001 0.960000 -0.178600 -0.154672 0.971688 
-41.451321 41.183998 0.960000 0.003964 -0.020597 0.999780 
-43.446640 40.032001 0.960000 0.257879 -0.148886 0.954637 
-36.534649 37.728001 0.960000 0.466034 0.269066 0.842862 
-36.534649 40.032001 0.960000 0.185909 -0.107335 0.976687 
-34.539322 36.576000 0.960000 -0.033863 0.175958 0.983815 
-32.543999 37.728001 0.960000 -0.194171 0.168157 0.966448 
-32.543999 38.880001 0.960000 -0.687099 0.000000 0.726564 
-32.543999 40.032001 0.960000 -0.178934 -0.154962 0.971581 
-34.539322 41.183998 0.960000 0.018620 -0.096755 0.995134 
-27.627319 41.183998 0.960000 0.018620 -0.096755 0.995134 
-29.622641 40.032001 0.960000 0.184944 -0.106777 0.976931 
-29.622641 37.728001 0.960000 0.460823 0.266056 0.846674 
-27.627319 36.576000 0.960000 -0.033196 0.172491 0.984452 
-25.632000 37.728001 0.960000 -0.191844 0.166141 0.967261 
-25.632000 38.880001 0.960000 -0.677328 0.000000 0.735681 
-25.632000 40.032001 0.960000 -0.178600 -0.154672 0.971688 
-22.710649 37.728001 0.960000 0.466033 0.269065 0.842863 
-22.710649 40.032001 0.960000 0.185909 -0.107335 0.976687 
-20.715321 36.576000 0.960000 -0.033863 0.175958 0.983815 
-18.719999 37.728001 0.960000 -0.194171 0.168157 0.966448 
-18.719999 38.880001 0.960000 -0.687099 0.000000 0.726564 
-18.719999 40.032001 0.960000 -0.178935 -0.154962 0.971581 
-20.715321 41.183998 0.960000 0.018620 -0.096755 0.995134 
-15.798650 37.728001 0.960000 0.460823 0.266057 0.846673 
-15.798650 40.032001 0.960000 0.184944 -0.106778 0.976931 
-13.803320 36.576000 0.960000 -0.033075 0.171864 0.984565 
-11.808000 37.728001 0.960000 -0.091782 0.079485 0.992602 
-11.808000 38.880001 0.960000 -0.986856 0.000000 0.161604 
-11.808000 40.032001 0.960000 -0.070466 -0.061026 0.995646 
-13.803320 41.183998 0.960000 0.018620 -0.096755 0.995134 
-6.891323 41.183998 0.960000 0.018620 -0.096755 0.995134 
-8.886645 40.032001 0.960000 0.038088 -0.021990 0.999032 
-8.886645 37.728001 0.960000 0.251154 0.145004 0.957024 
-6.891323 36.576000 0.960000 -0.035593 0.184947 0.982104 
-4.896000 37.728001 0.960000 -0.198992 0.172332 0.964730 
-4.896000 38.880001 0.960000 -0.707107 0.000000 0.707107 
-4.896000 40.032001 0.960000 -0.179607 -0.155544 0.971364 
-19.275320 4.229966 0.960000 0.014630 0.037462 0.999191 
-19.275320 5.759999 0.960000 0.079663 -0.059266 0.995058 
-16.958170 4.855111 0.960000 -0.019484 0.034118 0.999228 
-15.632850 5.961015 0.960000 -0.020277 -0.013273 0.999706 
-17.280001 6.911999 0.960000 0.025200 -0.105004 0.994152 
-22.627939 -0.741073 0.960000 -0.076895 0.135160 0.987836 
-22.627939 0.863999 0.960000 0.314452 -0.227573 0.921591 
-20.078369 1.696007 0.960000 -0.148182 0.109523 0.982877 
-20.632610 2.016000 0.960000 0.363620 -0.832968 0.417066 
-20.451599 1.911496 0.960000 0.000000 0.000000 1.000000 
-20.873011 1.877206 0.960000 0.000000 0.000000 1.000000 
-26.187321 3.456002 0.960000 0.575311 0.118403 0.809319 
-25.649200 3.145314 0.960000 -0.042394 0.357803 0.932834 
-22.196680 3.741605 0.960000 -0.154069 0.363665 0.918701 
-22.196680 4.607999 0.960000 -0.719689 0.000000 0.694297 
-22.196680 5.759999 0.960000 -0.160337 -0.138856 0.977247 
-24.191999 6.911999 0.960000 0.042586 -0.221282 0.974279 
-26.187321 5.759999 0.960000 0.259620 -0.149892 0.954007 
-25.590639 0.863999 0.960000 -0.057969 -0.009600 0.998272 
-26.012541 1.107579 0.960000 0.024704 -0.159665 0.986862 
-29.581289 0.400975 0.960000 0.157632 -0.220817 0.962493 
-29.581289 -1.439998 0.960000 0.480963 0.320643 0.816004 
-27.585970 -2.591998 0.960000 -0.008876 0.046123 0.998896 
-25.590639 -1.439998 0.960000 -0.022703 0.013108 0.999656 
-33.099319 3.456002 0.960000 0.655662 0.172799 0.735016 
-32.383129 3.042508 0.960000 0.103649 0.579809 0.808133 
-30.240931 2.802293 0.960000 -0.124593 0.514468 0.848410 
-32.063190 3.006631 0.960000 0.000000 0.000000 1.000000 
-30.867540 2.872555 0.960000 0.124430 0.470244 -0.873720 
-29.108681 3.456002 0.960000 -0.099590 0.062447 0.993067 
-29.108681 4.607999 0.960000 -0.421715 0.000000 0.906728 
-29.108681 5.759999 0.960000 -0.134932 -0.116854 0.983940 
-31.104000 6.911999 0.960000 0.043164 -0.224287 0.973567 
-33.099319 5.759999 0.960000 0.263365 -0.152054 0.952638 
-32.461288 -1.439998 0.960000 -0.136405 0.203514 0.969523 
-32.461288 -0.357654 0.960000 -0.577451 0.000000 0.816425 
-32.461288 -0.288001 0.960000 -0.577451 0.000000 0.816425 
-32.461288 0.863999 0.960000 -0.235151 -0.203647 0.950385 
-34.456612 2.016000 0.960000 0.040416 -0.210006 0.976864 
-36.451931 0.863999 0.960000 0.245607 -0.141801 0.958942 
-36.451931 -1.439998 0.960000 0.503638 0.290775 0.813510 
-34.456612 -2.591998 0.960000 -0.034182 0.177614 0.983506 
-36.020679 5.759999 0.960000 -0.158063 -0.136886 0.977895 
-36.020679 4.607999 0.960000 -0.677326 0.000000 0.735683 
-38.015999 6.911999 0.960000 0.042586 -0.221281 0.974280 
-40.011318 5.759999 0.960000 0.138739 -0.080101 0.987084 
-40.011318 3.456002 0.960000 0.251154 0.145004 0.957024 
-38.015999 2.304002 0.960000 -0.034618 0.179881 0.983079 
-36.020679 3.456002 0.960000 -0.191843 0.166141 0.967261 
-29.108681 -4.032001 0.960000 -0.077012 -0.066694 0.994797 
-29.108681 -5.184001 0.960000 -0.687099 0.000000 0.726564 
-31.104000 -2.880000 0.960000 0.034707 -0.180341 0.982992 
-33.099319 -4.032001 0.960000 0.263365 -0.152054 0.952638 
-33.099319 -6.336000 0.960000 0.572620 0.330602 0.750206 
-31.104000 -7.488000 0.960000 -0.011428 0.059380 0.998170 
-29.108681 -6.336000 0.960000 -0.026832 0.023237 0.999370 
-32.461288 -11.197070 0.960000 -0.963862 0.000000 0.266402 
-32.461288 -11.232000 0.960000 -0.505387 0.849595 0.150904 
-32.461288 -8.928001 0.960000 -0.111948 -0.097690 0.988901 
-34.456612 -7.776000 0.960000 0.040416 -0.210006 0.976864 
-36.451931 -8.928001 0.960000 0.245608 -0.141801 0.958942 
-36.451931 -11.232000 0.960000 0.503638 0.290775 0.813510 
-34.456612 -12.384000 0.960000 -0.042926 0.223051 0.973861 
-32.485291 -11.245860 0.960000 -0.031726 0.015610 0.999375 
-8.372678 -13.824000 0.960000 -0.029183 -0.013742 0.999480 
-9.117744 -13.393830 0.960000 0.110825 -0.136433 0.984431 
-12.061160 -16.302460 0.960000 0.043821 0.003990 0.999031 
-9.589376 -13.874490 0.960000 0.000000 0.000000 1.000000 
-10.422640 -14.697460 0.960000 0.058332 -0.059452 -0.996525 
-10.903190 -15.158170 0.960000 0.000000 0.000000 1.000000 
-11.268040 -15.507960 0.960000 0.019218 -0.020293 -0.999609 
-10.368000 -17.280001 0.960000 -0.040037 0.171558 0.984360 
-8.372678 -16.128000 0.960000 -0.196553 0.170220 0.965604 
-8.372678 -14.976000 0.960000 -0.697027 0.000000 0.717045 
-11.766650 -18.719999 0.960000 -0.325813 -0.177527 0.928617 
-13.598230 -17.662531 0.960000 0.016081 -0.037677 0.999161 
-15.757290 -19.503691 0.960000 0.035749 -0.022961 0.999097 
-15.757290 -21.024000 0.960000 0.097531 0.072823 0.992565 
-13.761970 -22.176001 0.960000 -0.034034 0.176846 0.983650 
-11.766650 -21.024000 0.960000 -0.259621 0.149892 0.954007 
-34.456612 -22.176001 0.960000 0.012014 0.117931 0.992949 
-33.758209 -21.772779 0.960000 -0.433006 -0.113111 -0.894266 
-33.763649 -21.709270 0.960000 -0.660645 -0.056644 0.748559 
-34.101131 -17.773239 0.960000 -0.413690 -0.099788 0.904933 
-34.456612 -17.568001 0.960000 0.109327 -0.226395 0.967881 
-34.176819 -17.729540 0.960000 -0.996186 0.055850 -0.067042 
-36.451931 -18.719999 0.960000 0.442957 -0.255741 0.859294 
-36.451931 -21.024000 0.960000 0.558286 0.322326 0.764475 
-1.460678 -23.615999 0.960000 -0.182142 -0.157740 0.970537 
-1.460678 -24.768000 0.960000 -0.386232 0.000000 0.922402 
-3.456000 -22.464001 0.960000 0.006422 -0.033372 0.999422 
-5.451323 -23.615999 0.960000 0.323798 -0.186945 0.927473 
-5.451323 -25.920000 0.960000 0.455706 0.263102 0.850358 
-3.456000 -27.072001 0.960000 -0.082614 0.429276 0.899387 
-1.460678 -25.920000 0.960000 -0.200505 0.173643 0.964181 
-2.458339 -26.496000 0.960000 0.000000 0.000000 1.000000 
-8.372678 -23.615999 0.960000 -0.164634 -0.142577 0.975996 
-8.372678 -24.768000 0.960000 -0.697027 0.000000 0.717045 
-10.368000 -22.464001 0.960000 0.042586 -0.221282 0.974280 
-12.363320 -23.615999 0.960000 0.259621 -0.149892 0.954007 
-12.363320 -25.920000 0.960000 0.557849 0.322074 0.764900 
-10.368000 -27.072001 0.960000 -0.053447 0.277720 0.959174 
-8.372678 -25.920000 0.960000 -0.196553 0.170220 0.965604 
-11.766650 -28.511999 0.960000 -0.138916 -0.080203 0.987051 
-11.766650 -30.816000 0.960000 -0.089051 0.051414 0.994699 
-13.761970 -27.360001 0.960000 0.040938 -0.212719 0.976256 
-15.757290 -28.511999 0.960000 0.248974 -0.143745 0.957784 
-15.757290 -30.816000 0.960000 0.300164 0.173300 0.938013 
-13.761970 -31.968000 0.960000 -0.030508 0.158524 0.986884 
-15.284680 -23.615999 0.960000 -0.223555 -0.193604 0.955270 
-15.284680 -24.768000 0.960000 -0.687099 0.000000 0.726564 
-17.280001 -22.464001 0.960000 0.006722 -0.034927 0.999367 
-19.275320 -23.615999 0.960000 0.059572 -0.034394 0.997631 
-19.275320 -25.920000 0.960000 0.090458 0.052226 0.994530 
-17.280001 -27.072001 0.960000 -0.053447 0.277720 0.959174 
-15.284680 -25.920000 0.960000 -0.194171 0.168157 0.966448 
-18.637289 -28.511999 0.960000 -0.276049 -0.159377 0.947838 
-18.637289 -30.816000 0.960000 -0.065736 0.037953 0.997115 
-20.632610 -27.360001 0.960000 0.011165 -0.058017 0.998253 
-22.627939 -28.511999 0.960000 0.245608 -0.141802 0.958942 
-22.627939 -30.816000 0.960000 0.292755 0.169023 0.941130 
-20.632610 -31.968000 0.960000 -0.030110 0.156454 0.987226 
-22.196680 -23.615999 0.960000 0.000000 0.000000 1.000000 
-22.196680 -24.768000 0.960000 -0.677325 0.000000 0.735684 
-26.187321 -24.768000 0.960000 0.069725 -0.142262 0.987370 
-26.187321 -25.920000 0.960000 0.097013 0.084015 0.991731 
-24.191999 -27.072001 0.960000 -0.052462 0.272600 0.960696 
-22.196680 -25.920000 0.960000 -0.191843 0.166141 0.967261 
-25.590639 -28.511999 0.960000 -0.270704 -0.156292 0.949891 
-25.590639 -30.816000 0.960000 -0.064749 0.037383 0.997201 
-27.585970 -27.360001 0.960000 0.009621 -0.049993 0.998703 
-29.581289 -28.511999 0.960000 0.248974 -0.143745 0.957784 
-29.581289 -30.816000 0.960000 0.196491 0.113444 0.973921 
-27.585970 -31.968000 0.960000 -0.006243 0.032438 0.999454 
-29.108681 -25.038389 0.960000 -0.043315 -0.090552 0.994949 
-29.108681 -25.920000 0.960000 -0.178378 0.175019 0.968271 
-31.281450 -24.880671 0.960000 -0.084273 -0.151628 0.984839 
-29.962879 -24.957640 0.960000 0.000000 0.000000 1.000000 
-32.860489 -23.478109 0.960000 -0.089007 -0.162464 0.982692 
-31.865580 -24.361820 0.960000 0.000000 0.000000 1.000000 
-31.930620 -24.328190 0.960000 -0.023196 -0.035093 0.999115 
-33.099319 -23.615999 0.960000 0.172340 -0.016856 0.984893 
-32.883240 -23.491240 0.960000 -0.166192 -0.157439 -0.973444 
-33.099319 -25.920000 0.960000 0.518630 0.299431 0.800852 
-31.104000 -27.072001 0.960000 -0.022759 0.118259 0.992722 
2.016000 -18.719999 0.960000 0.004950 -0.010090 -0.999937 
2.016000 -21.024000 0.960000 -0.255977 0.147788 0.955319 
-0.270409 -19.729959 0.960000 -0.001048 -0.020574 0.999788 
1.677599 -18.869480 0.960000 0.000000 0.000000 1.000000 
1.504440 -18.954430 0.960000 0.000000 0.000000 1.000000 
1.351981 -19.013309 0.960000 0.000000 0.000000 1.000000 
-1.974645 -19.079920 0.960000 0.007114 -0.009369 0.999931 
-1.974645 -21.024000 0.960000 0.064916 0.041836 0.997013 
0.020677 -22.176001 0.960000 -0.046659 0.242449 0.969041 
2.016000 40.032001 0.960000 -0.181396 -0.157094 0.970782 
2.016000 38.880001 0.960000 -0.707107 0.000000 0.707107 
0.020677 41.183998 0.960000 0.018673 -0.097026 0.995107 
-1.974645 40.032001 0.960000 0.183044 -0.105680 0.977408 
-1.974645 37.728001 0.960000 0.450680 0.260200 0.853923 
0.020677 36.576000 0.960000 -0.004230 0.021980 0.999749 
2.016000 37.728001 0.960000 -0.198992 0.172332 0.964730 
-14.767530 11.227440 0.960000 0.097692 0.200626 0.974785 
-11.766650 10.301310 0.960000 0.010497 0.034550 -0.999348 
-11.766650 10.656000 0.960000 -0.061938 -0.082025 0.994704 
-13.761970 11.808000 0.960000 0.000134 -0.058857 0.998267 
-14.743830 11.241120 0.960000 0.000000 0.000000 1.000000 
15.757290 9.022614 0.960000 0.037074 -0.135755 0.990048 
13.048110 7.612145 0.960000 0.035850 -0.020557 0.999146 
13.243080 7.723283 0.960000 0.000000 0.000000 1.000000 
13.761970 7.200001 0.960000 -0.021157 0.052611 0.998391 
15.757290 8.352002 0.960000 -0.165091 0.180735 0.969577 
4.436000 -29.664000 0.960000 0.719620 0.553191 0.419675 
-4.436000 -36.692001 0.960000 -0.388532 -0.170055 0.905607 
-4.436000 -29.664000 0.960000 -0.737108 0.566634 0.368236 
-1.978339 -27.327379 0.960000 -0.274296 0.752980 0.598150 
1.978339 -27.327379 0.960000 0.245243 0.673227 0.697583 
-0.000000 -33.178001 11.560000 0.000000 0.767591 0.640940 
-1.312000 -44.063999 11.560000 -0.458877 -0.052995 0.886918 
-1.312000 -33.178001 11.560000 -0.494080 0.059547 0.867375 
1.312000 -44.063999 11.560000 0.323862 -0.342010 0.882124 
1.312000 -33.178001 11.560000 0.562454 0.032479 0.826190 
-4.436000 -32.229221 8.968000 -0.948146 0.134150 0.288136 
-4.436000 -44.063999 8.968000 -0.887847 -0.392631 0.239934 
4.436000 -44.063999 8.968000 0.930915 -0.220361 0.291271 
4.436000 -32.229221 8.968000 0.944227 0.203304 0.259043 
0.905867 -44.063999 1.103260 -0.188176 -0.492541 0.849702 
1.750000 -44.063999 1.452911 -0.451094 -0.211657 0.867016 
2.474874 -44.063999 2.009126 -0.696467 -0.172822 0.696467 
3.031089 -44.063999 2.734000 -0.867277 -0.210290 0.451230 
3.380740 -44.063999 3.578133 -0.856324 -0.480359 0.189642 
-0.000000 -44.063999 0.984000 0.043696 -0.081648 0.995703 
3.500000 -44.063999 4.484000 -0.996019 -0.077689 -0.043710 
3.380740 -44.063999 5.389867 -0.941383 -0.159877 -0.297047 
3.031089 -44.063999 6.234000 -0.824416 -0.210290 -0.525468 
2.474874 -44.063999 6.958874 -0.667216 -0.331127 -0.667216 
1.750000 -44.063999 7.515089 -0.525310 -0.211657 -0.824167 
0.905867 -44.063999 7.864740 -0.296914 -0.162593 -0.940960 
-0.000000 -44.063999 7.984000 -0.038710 -0.469470 -0.882099 
-3.380740 -44.063999 3.578133 0.836420 -0.480359 0.263927 
-3.031089 -44.063999 2.734000 0.824415 -0.210290 0.525468 
-2.474874 -44.063999 2.009126 0.667216 -0.331127 0.667216 
-1.750000 -44.063999 1.452911 0.525310 -0.211657 0.824167 
-0.905867 -44.063999 1.103260 0.296914 -0.162593 0.940960 
-3.500000 -44.063999 4.484000 0.996019 -0.077689 0.043710 
-3.380740 -44.063999 5.389867 0.963785 -0.159877 -0.213441 
-3.031089 -44.063999 6.234000 0.867277 -0.210290 -0.451230 
-2.474874 -44.063999 6.958874 0.696467 -0.172822 -0.696467 
-1.750000 -44.063999 7.515089 0.451094 -0.211657 -0.867016 
-0.905867 -44.063999 7.864740 0.213345 -0.162593 -0.963352 
0.905867 -36.063999 1.103260 -0.300689 -0.039009 0.952924 
-0.905867 -36.063999 1.103260 0.215247 -0.094844 0.971943 
-0.000000 -36.063999 0.984000 -0.043840 -0.009928 0.998989 
1.750000 -36.063999 1.452911 -0.514633 -0.288503 0.807415 
-1.750000 -36.063999 1.452911 0.456729 -0.144171 0.877846 
-2.474874 -36.063999 2.009126 0.679865 -0.274893 0.679865 
2.474874 -36.063999 2.009126 -0.568216 -0.595198 0.568216 
-3.031089 -36.063999 2.734000 0.760038 -0.515726 0.395435 
3.031089 -36.063999 2.734000 -0.691044 -0.573108 0.440460 
-3.380740 -36.063999 3.578133 0.770266 -0.614485 0.170584 
3.380740 -36.063999 3.578133 -0.731971 -0.640994 0.230969 
-3.500000 -36.063999 4.484000 0.755873 -0.653877 -0.033171 
3.500000 -36.063999 4.484000 -0.755873 -0.653877 0.033171 
-3.380740 -36.063999 5.389867 0.731971 -0.640993 -0.230969 
3.380740 -36.063999 5.389867 -0.770266 -0.614485 -0.170584 
-3.031089 -36.063999 6.234000 0.691044 -0.573108 -0.440460 
3.031089 -36.063999 6.234000 -0.760038 -0.515726 -0.395435 
-2.474874 -36.063999 6.958874 0.568216 -0.595198 -0.568216 
2.474874 -36.063999 6.958874 -0.679865 -0.274893 -0.679865 
-1.750000 -36.063999 7.515089 0.518617 -0.262648 -0.813666 
1.750000 -36.063999 7.515089 -0.454657 -0.172192 -0.873864 
-0.905867 -36.063999 7.864740 0.299562 -0.094844 -0.949351 
0.905867 -36.063999 7.864740 -0.216058 -0.039009 -0.975601 
-0.000000 -36.063999 7.984000 0.043840 -0.009928 -0.998989 
-29.372021 2.476830 1.920000 -0.089143 0.673640 0.733664 
-19.248770 4.224248 0.960000 -0.027586 0.155073 -0.987518 
-29.372021 2.476830 0.960000 -0.029285 0.495575 -0.868072 
-19.248770 4.224248 1.920000 -0.019413 0.102909 0.994501 
32.278141 -1.199439 1.920000 0.344164 -0.834117 0.431046 
32.278141 -1.199439 0.960000 0.186000 -0.681576 -0.707713 
32.702202 -0.334251 1.920000 0.921017 -0.019775 0.389019 
32.702202 -0.334251 0.960000 0.541360 0.840791 0.000002 
11.239480 21.955429 1.920000 -0.189913 -0.020263 0.981592 
11.239480 18.334311 0.960000 -0.113678 0.095952 -0.988873 
11.239480 18.334311 1.920000 -0.087403 0.077257 0.993173 
11.239480 21.955429 0.960000 -0.590912 -0.092020 -0.801471 
-31.643970 -24.476410 1.920000 -0.022899 -0.044286 0.998756 
-31.643970 -24.476410 0.960000 -0.023497 -0.045441 -0.998691 
-31.930620 -24.328190 1.920000 -0.047042 -0.066832 0.996655 
9.316354 36.665100 1.920000 -0.580513 0.217821 0.784576 
9.985688 37.150059 0.960000 0.123451 0.165021 -0.978534 
9.316354 36.665100 0.960000 -0.845600 0.317287 -0.429290 
9.985688 37.150059 1.920000 0.045456 0.060763 0.997117 
9.316354 35.366219 0.960000 -0.322352 0.169944 -0.931240 
9.316354 35.366219 1.920000 -0.293954 0.154972 0.943173 
31.506889 23.130260 1.920000 0.395518 -0.699578 0.595110 
30.373461 22.874701 0.960000 0.050369 -0.394057 -0.917705 
31.506889 23.130260 0.960000 0.275405 -0.487127 -0.828770 
30.373461 22.874701 1.920000 0.024600 -0.442522 0.896420 
-33.757309 2.459092 1.920000 -0.581062 0.617993 0.529577 
-32.489208 2.997327 0.960000 -0.310858 0.848084 -0.429093 
-33.757309 2.459092 0.960000 -0.428207 0.455423 -0.780531 
-32.489208 2.997327 1.920000 -0.146533 0.850438 0.505256 
28.641621 22.874701 0.960000 0.131839 -0.263660 -0.955564 
28.641621 22.874701 1.920000 0.293940 -0.442874 0.847031 
-31.569099 -1.208713 1.920000 0.124135 -0.705478 0.697776 
-31.569099 -1.208713 0.960000 0.323967 -0.749497 -0.577321 
-32.789219 -1.199439 1.920000 -0.358552 -0.674156 0.645720 
-32.903759 -12.096390 1.920000 -0.182498 0.077962 0.980110 
-33.346939 -13.215750 0.960000 -0.222027 0.081107 -0.971661 
-33.346939 -13.215750 1.920000 -0.224119 0.075138 0.971661 
-32.903759 -12.096390 0.960000 -0.263142 0.120188 -0.957242 
-33.773102 1.790158 0.960000 -0.147519 -0.933618 -0.326489 
-33.773102 1.790158 1.920000 -0.128409 -0.812677 0.568390 
31.031740 -0.073158 1.920000 0.505386 0.600730 0.619443 
32.065090 -0.393241 0.960000 0.166784 0.680672 -0.713350 
31.031740 -0.073158 0.960000 0.344580 0.409587 -0.844691 
32.065090 -0.393241 1.920000 0.055752 0.636564 0.769206 
-30.586941 -0.587966 1.920000 0.357998 -0.462928 0.810886 
-30.586941 -0.587966 0.960000 0.423219 -0.479680 -0.768630 
-23.228760 -1.333328 1.920000 -0.035088 0.036708 0.998710 
-23.228760 -1.333328 0.960000 -0.042998 0.044925 -0.998065 
-19.834181 1.911496 0.960000 -0.143749 0.125513 -0.981623 
-19.834181 1.911496 1.920000 -0.016917 0.009313 0.999814 
-30.418200 1.422238 1.920000 -0.367463 -0.114675 0.922941 
-32.259190 2.222378 0.960000 -0.172000 -0.765109 -0.620503 
-30.418200 1.422238 0.960000 -0.194715 -0.060765 -0.978976 
-32.259190 2.222378 1.920000 0.008945 -0.677315 0.735639 
32.051159 24.911209 0.960000 0.751335 0.582896 -0.309401 
32.363091 23.999571 1.920000 0.860813 -0.074278 0.503471 
32.363091 23.999571 0.960000 0.782701 -0.413601 -0.465096 
32.051159 24.911209 1.920000 -0.057890 0.898152 0.435858 
-32.964272 -23.405701 1.920000 -0.106917 -0.090521 0.990139 
-32.486191 -23.910360 0.960000 -0.663071 -0.748556 0.000000 
-32.486191 -23.910360 1.920000 -0.045592 -0.051086 0.997653 
-32.964272 -23.405701 0.960000 -0.122759 -0.084668 -0.988818 
-31.426741 3.020524 1.920000 0.133934 0.650912 0.747245 
-31.426741 3.020524 0.960000 0.049043 0.998797 0.000001 
8.395848 34.919071 1.920000 0.001762 0.417330 0.908753 
8.395848 34.919071 0.960000 0.185583 0.434485 -0.881352 
7.256354 35.825951 1.920000 0.298685 0.579612 0.758180 
7.256354 35.825951 0.960000 0.062822 0.533520 -0.843451 
-34.121090 -16.735600 1.920000 -0.945238 0.078394 0.316828 
-34.188480 -17.937620 0.960000 -0.999818 0.019078 0.000002 
-34.188480 -17.937620 1.920000 -0.999435 0.002501 0.033513 
-34.121090 -16.735600 0.960000 -0.990238 0.112159 -0.082761 
-33.698971 -14.367050 0.960000 -0.505968 0.140029 -0.851110 
-33.698971 -14.367050 1.920000 -0.492899 0.122311 0.861447 
-33.957569 -15.542850 0.960000 -0.707650 0.135909 -0.693368 
-33.957569 -15.542850 1.920000 -0.688150 0.113163 0.716689 
31.748110 2.222378 1.920000 0.168878 -0.751225 0.638077 
29.907110 1.422238 0.960000 0.457865 -0.142886 -0.877464 
31.748110 2.222378 0.960000 -0.009352 -0.708175 -0.705975 
29.907110 1.422238 1.920000 0.242108 -0.075555 0.967303 
6.619988 35.514530 1.920000 -0.937238 -0.114785 0.329257 
6.619988 35.514530 0.960000 -0.814150 -0.099710 -0.572030 
33.262020 1.790158 1.920000 0.126333 -0.799540 0.587176 
33.262020 1.790158 0.960000 0.088574 -0.560570 -0.823356 
7.519644 33.676140 0.960000 -0.551695 -0.487830 -0.676502 
7.519644 33.676140 1.920000 -0.358140 -0.316681 0.878321 
21.571369 17.607380 0.960000 0.397401 -0.357083 -0.845319 
16.846220 9.747487 1.920000 0.308250 -0.259730 0.915162 
16.846220 9.747487 0.960000 0.164472 -0.138583 -0.976598 
21.571369 17.607380 1.920000 0.199934 -0.179649 0.963199 
8.793774 33.056160 1.920000 -0.608028 -0.380806 0.696627 
8.793774 33.056160 0.960000 -0.387991 -0.242997 -0.889053 
29.773840 -8.078187 0.960000 0.075415 0.076496 -0.994214 
30.547550 -9.000560 1.920000 0.080038 0.063571 0.994763 
30.547550 -9.000560 0.960000 0.081711 0.061406 -0.994763 
29.773840 -8.078187 1.920000 0.025715 0.026260 0.999324 
13.243080 7.723283 1.920000 0.038318 0.012541 0.999187 
-20.638359 1.911496 0.960000 0.027967 -0.999609 0.000000 
-20.638359 1.911496 1.920000 0.090590 -0.648482 0.755821 
9.564600 30.410980 0.960000 -0.536962 -0.134378 -0.832835 
9.564600 30.410980 1.920000 -0.630789 -0.132910 0.764487 
30.915661 3.020524 1.920000 -0.068329 0.574289 0.815796 
30.915661 3.020524 0.960000 -0.214349 0.976757 -0.000001 
31.978130 2.997327 0.960000 0.142514 0.729595 -0.668865 
31.978130 2.997327 1.920000 0.226624 0.741630 0.631369 
28.860941 2.476830 1.920000 0.013246 0.285642 0.958245 
28.860941 2.476830 0.960000 0.062037 0.447307 -0.892226 
33.246231 2.459092 0.960000 0.664833 0.707087 -0.240884 
33.246231 2.459092 1.920000 0.613571 0.652566 0.444621 
-25.890459 -24.721809 1.920000 0.010405 -0.062800 0.997972 
-25.890459 -24.721809 0.960000 0.195393 -0.980725 0.000000 
-26.901720 -24.869341 0.960000 0.008068 -0.065583 -0.997815 
-26.901720 -24.869341 1.920000 0.006637 -0.062262 0.998038 
-22.931660 -23.931881 1.920000 0.007929 -0.022541 0.999714 
-23.902090 -24.252291 0.960000 0.295109 -0.955463 0.000000 
-22.931660 -23.931881 0.960000 0.356216 -0.934363 -0.008687 
-23.902090 -24.252291 1.920000 0.018255 -0.063430 0.997819 
-21.981440 -23.555740 1.920000 0.024611 -0.058824 0.997965 
-21.981440 -23.555740 0.960000 0.031605 -0.070960 -0.996978 
-21.054630 -23.125139 1.920000 0.028866 -0.059111 0.997834 
-21.054630 -23.125139 0.960000 0.030118 -0.058765 -0.997817 
-24.889460 -24.515900 1.920000 0.014279 -0.063196 0.997899 
-24.889460 -24.515900 0.960000 0.239215 -0.970967 0.000000 
-27.919821 -24.957991 0.960000 0.004159 -0.061510 -0.998098 
-27.919821 -24.957991 1.920000 0.002969 -0.061580 0.998098 
0.396418 31.849190 1.920000 -0.789115 0.352856 0.502783 
0.396418 30.629030 0.960000 -0.805416 -0.102970 -0.583696 
0.396418 30.629030 1.920000 -0.936649 -0.295625 0.187870 
0.396418 31.849190 0.960000 -0.810321 0.362339 -0.460532 
5.285929 32.378620 1.920000 0.803399 -0.417685 0.424370 
3.721256 31.319771 0.960000 0.585052 -0.579498 -0.567359 
5.285929 32.378620 0.960000 0.647340 -0.336550 -0.683875 
3.721256 31.319771 1.920000 0.417289 -0.413328 0.809339 
-34.159302 -19.141171 1.920000 -0.988157 -0.076983 0.132736 
-34.033730 -20.338511 1.920000 -0.834575 -0.132964 0.534607 
-33.812592 -21.521940 1.920000 -0.496672 -0.112460 0.860622 
-33.636890 -22.194521 1.920000 -0.259070 -0.099686 0.960701 
-33.351452 -22.828360 1.920000 -0.253546 -0.150240 0.955585 
-32.372280 -11.016150 1.920000 -0.134117 0.070501 0.988454 
-31.755911 -9.981986 1.920000 -0.125785 0.079602 0.988859 
-31.058630 -9.000560 1.920000 -0.071661 0.053853 0.995974 
-31.313141 -24.647480 1.920000 -0.033883 -0.080973 0.996140 
-30.651039 -24.859270 1.920000 -0.014440 -0.055672 0.998345 
-30.284929 -8.078187 1.920000 -0.100130 0.102254 0.989706 
-29.962879 -24.957640 1.920000 -0.001383 -0.014642 0.999892 
-28.941360 -24.987459 1.920000 -0.000598 -0.060762 0.998152 
-20.154341 -22.641520 1.920000 0.033338 -0.059283 0.997684 
-19.283609 -22.106520 1.920000 0.027075 -0.042213 0.998742 
-32.576172 -0.393241 1.920000 -0.147985 0.688470 0.710007 
-33.213280 -0.334251 1.920000 -0.918477 0.242718 0.312231 
-31.542820 -0.073158 1.920000 -0.344580 0.409586 0.844691 
-29.362350 0.636628 1.920000 0.083564 -0.250716 0.964447 
-18.445360 -21.521940 1.920000 0.016725 -0.023317 0.999588 
-16.858021 4.756352 1.920000 -0.033199 0.044148 0.998473 
-17.509769 -20.817450 1.920000 0.043658 -0.057386 0.997397 
-16.584761 -20.099140 1.920000 0.016714 -0.021305 0.999633 
-13.754160 7.723283 1.920000 -0.027532 -0.016100 0.999491 
-15.670530 -19.367161 1.920000 0.045588 -0.056363 0.997369 
-14.767280 -18.621670 1.920000 0.047058 -0.056444 0.997296 
-13.875210 -17.862829 1.920000 0.048525 -0.056475 0.997224 
-12.994520 -17.090820 1.920000 0.022615 -0.025543 0.999418 
-30.971741 26.301661 1.920000 -0.814355 -0.484797 0.319058 
-30.971741 27.271090 1.920000 0.122399 0.652104 0.748184 
-31.455910 26.809250 1.920000 -0.969645 0.000000 0.244517 
-30.416059 25.215380 1.920000 -0.307889 -0.068347 0.948964 
-29.694469 26.754990 1.920000 0.207894 0.294449 0.932781 
-32.017971 23.130260 1.920000 -0.247277 -0.437372 0.864615 
-32.562241 24.911209 1.920000 -0.577186 0.447786 0.682894 
-32.874168 23.999571 1.920000 -0.830425 -0.438818 0.343269 
-32.153450 24.418989 1.920000 0.527069 0.722355 0.447663 
-31.196430 23.914640 1.920000 -0.158850 0.587992 0.793116 
-30.884550 22.874701 1.920000 -0.078368 -0.613101 0.786108 
-30.416059 24.506910 1.920000 -0.252896 0.151723 0.955523 
-29.152710 22.874701 1.920000 -0.158750 -0.317479 0.934883 
-28.926790 26.020121 1.920000 0.350586 0.250259 0.902474 
-27.858330 24.182760 1.920000 0.316299 0.385686 0.866719 
-22.082451 17.607380 1.920000 -0.362507 -0.325730 0.873206 
-19.464491 18.260151 1.920000 0.177840 0.176543 0.968094 
-17.357300 9.747487 1.920000 -0.164472 -0.138583 0.976598 
-15.130240 11.361150 1.920000 0.314796 0.307658 0.897915 
-11.672110 10.286970 1.920000 -0.009326 0.032769 0.999419 
-12.125400 -16.305811 1.920000 0.050158 -0.054982 0.997227 
-11.268040 -15.507960 1.920000 0.019479 -0.020725 0.999595 
-8.854697 13.147070 1.920000 -0.049035 -0.025760 0.998465 
-10.422640 -14.697460 1.920000 0.052951 -0.054686 0.997099 
-9.589376 -13.874490 1.920000 0.065118 -0.065057 0.995755 
-8.768438 -13.039210 1.920000 0.035307 -0.034113 0.998794 
-14.771430 21.976770 1.920000 -0.257890 0.023270 0.965894 
-14.771430 16.186680 1.920000 -0.237134 -0.158902 0.958393 
-11.750560 18.334311 1.920000 0.168386 0.148839 0.974419 
-13.198300 27.830521 1.920000 -0.322540 0.095571 0.941719 
-7.597728 17.257219 1.920000 -0.006400 0.038785 0.999227 
-7.960007 -12.191830 1.920000 -0.026826 -0.041334 0.998785 
-7.661039 -13.071890 1.920000 -0.119621 -0.048586 0.991630 
-7.286333 -13.922450 1.920000 -0.040838 -0.020913 0.998947 
-6.608505 19.182779 1.920000 -0.044528 0.006911 0.998984 
-6.838754 -14.737040 1.920000 -0.068237 -0.042852 0.996748 
-6.321724 -15.509410 1.920000 -0.025519 -0.019328 0.999487 
-6.351902 28.342159 1.920000 -0.015570 0.040277 0.999067 
-5.710316 28.566820 1.920000 -0.004650 0.016632 0.999851 
-5.739197 -16.233660 1.920000 -0.036028 -0.032613 0.998819 
-5.095627 -16.904249 1.920000 -0.013537 -0.014179 0.999808 
-5.050112 28.728790 1.920000 -0.003680 0.020643 0.999780 
-4.395935 -17.516050 1.920000 -0.018147 -0.021197 0.999611 
-4.377400 28.826571 1.920000 -0.002169 0.026987 0.999633 
-4.191807 -17.665199 1.920000 -0.010045 -0.013747 0.999855 
-3.698404 28.859270 1.920000 0.000353 0.021955 0.999759 
-3.645470 -18.064390 1.920000 -0.013156 -0.018586 0.999741 
-3.019410 28.826559 1.920000 -0.009865 0.009366 0.999907 
-3.404770 -18.209829 1.920000 -0.015977 -0.026442 0.999523 
-2.849972 -18.545071 1.920000 -0.010582 -0.019051 0.999762 
-3.019410 29.574400 1.920000 -0.088397 -0.033082 0.995536 
-10.331980 22.617020 1.920000 -0.971075 -0.181445 0.155212 
-10.317760 23.976580 1.920000 -0.921552 0.139065 0.362496 
-10.381850 23.297400 1.920000 -0.999066 -0.017460 0.039525 
-10.169550 21.954451 1.920000 -0.758674 -0.278635 0.588877 
-10.141510 24.635611 1.920000 -0.618380 0.202881 0.759240 
-9.899080 21.328159 1.920000 -0.441993 -0.252611 0.860715 
-9.858001 25.256109 1.920000 -0.363201 0.185575 0.913043 
-9.528128 20.755630 1.920000 -0.253233 -0.207502 0.944889 
-9.496724 25.831940 1.920000 -0.231872 0.156055 0.960147 
-9.067042 20.252840 1.920000 -0.076445 -0.082883 0.993623 
-9.081789 26.370399 1.920000 -0.263070 0.216513 0.940168 
-8.617035 26.866489 1.920000 -0.171942 0.177364 0.969009 
-8.528692 19.833830 1.920000 -0.091658 -0.132353 0.986956 
-8.106763 27.315620 1.920000 -0.093528 0.121109 0.988223 
-7.928101 19.510281 1.920000 -0.057279 -0.122160 0.990856 
-7.555695 27.713659 1.920000 -0.069788 0.110976 0.991370 
-7.282028 19.291229 1.920000 -0.031853 -0.114559 0.992905 
-6.968931 28.056900 1.920000 -0.052631 0.104875 0.993092 
-4.232338 31.319771 1.920000 -0.585052 -0.579498 0.567359 
-5.223464 33.226158 1.920000 0.000000 0.709618 0.704587 
-5.797011 32.378620 1.920000 -0.647340 -0.336551 0.683874 
-3.971066 32.378620 1.920000 0.339611 0.501844 0.795498 
-2.406392 31.319771 1.920000 0.000000 0.019654 0.999807 
-2.015522 -18.954430 1.920000 -0.009013 -0.019813 0.999763 
-1.689836 32.378620 1.920000 -0.010008 0.028334 0.999548 
-1.148502 -19.289310 1.920000 -0.005616 -0.015905 0.999858 
-1.300807 29.992970 1.920000 0.033061 0.017285 0.999304 
-0.255541 29.382010 1.920000 -0.003083 0.015823 0.999870 
-0.255541 -19.547180 1.920000 -0.002832 -0.029417 0.999563 
0.637420 -19.289310 1.920000 0.005925 -0.018480 0.999812 
0.789725 29.992970 1.920000 -0.010233 0.005350 0.999933 
1.504440 -18.954430 1.920000 0.007312 -0.017404 0.999822 
1.178754 32.378620 1.920000 0.008634 0.024445 0.999664 
1.895310 31.319771 1.920000 0.000000 0.039286 0.999228 
2.338890 -18.545071 1.920000 0.011307 -0.021788 0.999699 
2.508328 29.574400 1.920000 0.115097 -0.065873 0.991168 
3.459984 32.378620 1.920000 -0.323683 0.478305 0.816366 
2.508328 28.826559 1.920000 0.023538 0.022349 0.999473 
4.712382 33.226158 1.920000 0.000000 0.449763 0.893148 
19.643259 -22.641520 1.920000 -0.012007 -0.020416 0.999719 
19.323099 1.911496 1.920000 0.043890 0.040477 0.998216 
18.772520 -22.106520 1.920000 -0.027886 -0.041682 0.998742 
22.717680 -1.333328 1.920000 0.049326 0.051602 0.997449 
20.543539 -23.125139 1.920000 -0.032022 -0.062479 0.997533 
21.470360 -23.555740 1.920000 -0.027741 -0.062861 0.997637 
22.420580 -23.931881 1.920000 -0.023559 -0.063053 0.997732 
23.391010 -24.252291 1.920000 -0.004410 -0.014278 0.999888 
24.378380 -24.515900 1.920000 -0.019915 -0.080835 0.996529 
25.379379 -24.721809 1.920000 -0.015269 -0.082255 0.996494 
26.390631 -24.869341 1.920000 -0.010525 -0.083404 0.996460 
27.408739 -24.957991 1.920000 -0.005699 -0.084273 0.996426 
28.430269 -24.987459 1.920000 -0.000806 -0.084854 0.996393 
29.451799 -24.957640 1.920000 0.005242 -0.090611 0.995873 
30.139950 -24.859270 1.920000 0.011302 -0.056392 0.998345 
30.802059 -24.647480 1.920000 0.022036 -0.061332 0.997874 
31.244829 -9.981986 1.920000 0.101136 0.067859 0.992556 
31.132891 -24.476410 1.920000 0.052462 -0.101458 0.993456 
31.419540 -24.328190 1.920000 0.034196 -0.054044 0.997953 
31.861191 -11.016150 1.920000 0.132182 0.074065 0.988454 
31.975109 -23.910360 1.920000 0.090550 -0.101461 0.990710 
32.392681 -12.096390 1.920000 0.180345 0.082818 0.980111 
32.453190 -23.405701 1.920000 0.111814 -0.084396 0.990139 
32.835861 -13.215750 1.920000 0.259610 0.094837 0.961046 
32.840370 -22.828360 1.920000 0.186251 -0.096714 0.977730 
33.187889 -14.367050 1.920000 0.359299 0.099437 0.927910 
33.125809 -22.194521 1.920000 0.468659 -0.150814 0.870410 
33.301510 -21.521940 1.920000 0.566675 -0.115217 0.815846 
33.446491 -15.542850 1.920000 0.684873 0.131535 0.716692 
33.522652 -20.338511 1.920000 0.825768 -0.110109 0.553158 
33.610008 -16.735600 1.920000 0.942805 0.103655 0.316820 
33.648220 -19.141171 1.920000 0.981983 -0.064330 0.177680 
33.677399 -17.937620 1.920000 0.999530 0.016731 0.025677 
2.893688 -18.209829 1.920000 0.011274 -0.018657 0.999762 
3.187322 28.859270 1.920000 0.000312 0.019468 0.999810 
3.134388 -18.064390 1.920000 0.017943 -0.026723 0.999482 
3.680725 -17.665199 1.920000 0.013644 -0.018673 0.999732 
3.866318 28.826571 1.920000 0.003034 0.026904 0.999633 
3.884852 -17.516050 1.920000 0.012033 -0.014649 0.999820 
4.539030 28.728790 1.920000 0.004341 0.020514 0.999780 
4.584545 -16.904249 1.920000 0.027058 -0.028342 0.999232 
5.199234 28.566820 1.920000 0.006689 0.021266 0.999751 
5.228115 -16.233660 1.920000 0.024464 -0.020880 0.999483 
5.840819 28.342159 1.920000 0.008567 0.020208 0.999759 
5.810642 -15.509410 1.920000 0.045148 -0.032167 0.998462 
6.327672 -14.737040 1.920000 0.030294 -0.017814 0.999382 
6.097423 19.182779 1.920000 0.038093 0.005912 0.999257 
7.086646 17.257219 1.920000 0.014172 0.085891 0.996204 
6.775251 -13.922450 1.920000 0.095601 -0.045488 0.994380 
7.149957 -13.071890 1.920000 0.044649 -0.016634 0.998864 
8.343615 13.147070 1.920000 0.028051 -0.014736 0.999498 
7.448925 -12.191830 1.920000 -0.027831 -0.065447 0.997468 
8.257357 -13.039210 1.920000 -0.056277 -0.054765 0.996912 
14.260350 16.186680 1.920000 0.225962 -0.160432 0.960834 
12.687220 27.830521 1.920000 0.222310 0.070016 0.972459 
14.260350 21.976770 1.920000 0.879909 0.149725 0.450936 
10.625920 33.697842 1.920000 0.413453 0.084269 0.906618 
9.078295 -13.874490 1.920000 -0.013552 -0.013519 0.999817 
11.161030 10.286970 1.920000 0.016634 0.058451 0.998152 
9.911557 -14.697460 1.920000 -0.053461 -0.054668 0.997072 
10.756960 -15.507960 1.920000 -0.051949 -0.054726 0.997149 
11.614320 -16.305811 1.920000 -0.023118 -0.025090 0.999418 
14.619160 11.361150 1.920000 -0.169823 0.165972 0.971398 
12.483440 -17.090820 1.920000 -0.050265 -0.056208 0.997153 
18.953409 18.260151 1.920000 -0.325888 0.323510 0.888335 
27.347240 24.182760 1.920000 -0.175354 0.213822 0.961005 
28.415701 26.020121 1.920000 -0.561996 0.401171 0.723342 
29.183380 26.754990 1.920000 -0.132571 0.249246 0.959323 
29.904980 24.506910 1.920000 0.748058 0.448793 0.488870 
30.685350 23.914640 1.920000 -0.095619 0.618681 0.779802 
31.642370 24.418989 1.920000 -0.305608 0.418840 0.855089 
13.364130 -17.862829 1.920000 -0.017831 -0.020546 0.999630 
16.346939 4.756352 1.920000 0.016736 0.032737 0.999324 
14.256200 -18.621670 1.920000 -0.048023 -0.057024 0.997217 
15.159450 -19.367161 1.920000 -0.046673 -0.057124 0.997275 
16.073681 -20.099140 1.920000 -0.045288 -0.057143 0.997338 
16.998690 -20.817450 1.920000 -0.018912 -0.024604 0.999518 
18.737680 4.224248 1.920000 0.026318 0.147946 0.988645 
17.934280 -21.521940 1.920000 -0.040879 -0.055558 0.997618 
20.127279 1.911496 1.920000 -0.063385 -0.513710 0.855619 
28.851259 0.636628 1.920000 -0.139930 -0.692267 0.707945 
30.075859 -0.587966 1.920000 -0.345423 -0.386089 0.855347 
